ncols        165
nrows        32
xllcorner    8.111614536292
yllcorner    46.383528190925
dx           0.000526007856
dy           0.000356183462
NODATA_value  -3.4028230607370965251e+38
2023.33984375 2027.1190185546875 2024.6510009765625 2033.4222412109375 2049.8046875 2055.276123046875 2062.51416015625 2090.743408203125 2111.242431640625 2130.4404296875 2151.286865234375 2160.79931640625 2161.052978515625 2182.9970703125 2214.114013671875 2255.350830078125 2275.306884765625 2291.70849609375 2290.17626953125 2293.569580078125 2296.002197265625 2309.37939453125 2319.541259765625 2329.66845703125 2366.805419921875 2385.687744140625 2392.53857421875 2411.86572265625 2421.495849609375 2434.9033203125 2450.511474609375 2458.143310546875 2461.55029296875 2491.146240234375 2511.6884765625 2518.180419921875 2543.23095703125 2553.86572265625 2563.621826171875 2574.7265625 2596.845703125 2623.392822265625 2656.56103515625 2690.44677734375 2700.957275390625 2707.337890625 2690.272216796875 2689.6376953125 2705.266845703125 2710.2275390625 2731.62109375 2702.427001953125 2687.1728515625 2681.03759765625 2676.5458984375 2669.386474609375 2674.58984375 2680.837646484375 2688.513671875 2687.9482421875 2686.898193359375 2669.1279296875 2649.242919921875 2637.96044921875 2628.3212890625 2614.236083984375 2605.170654296875 2593.78271484375 2595.190185546875 2594.27783203125 2587.079833984375 2576.704345703125 2561.458251953125 2557.81298828125 2566.552734375 2576.1455078125 2578.947509765625 2578.072265625 2584.556396484375 2580.753173828125 2578.835693359375 2577.55810546875 2568.85107421875 2561.31103515625 2555.562744140625 2563.394287109375 2576.44189453125 2584.0703125 2596.67822265625 2603.70361328125 2594.165283203125 2570.959716796875 2588.319580078125 2604.5048828125 2610.87744140625 2614.614013671875 2640.582763671875 2668.7841796875 2696.934814453125 2712.8134765625 2742.993408203125 2771.290771484375 2790.057861328125 2801.837890625 2797.91845703125 2770.167236328125 2741.4541015625 2720.12890625 2702.90380859375 2678.003662109375 2623.6689453125 2590.96142578125 2572.455810546875 2534.888916015625 2522.08740234375 2498.170166015625 2491.32177734375 2478.183349609375 2484.455078125 2477.312255859375 2463.608154296875 2469.128662109375 2459.300048828125 2461.94775390625 2448.977783203125 2444.685546875 2441.115478515625 2433.13232421875 2427.064697265625 2424.354736328125 2429.3154296875 2427.352783203125 2425.142333984375 2422.187255859375 2422.65234375 2435.2548828125 2443.471923828125 2459.112548828125 2443.71826171875 2439.76025390625 2439.3115234375 2447.06494140625 2453.399658203125 2454.26953125 2466.959716796875 2490.06982421875 2516.203369140625 2545.49365234375 2569.503662109375 2590.956298828125 2611.587890625 2603.5947265625 2621.477783203125 2658.583984375 2698.83935546875 2715.310546875 2730.611083984375 2737.902587890625 2748.23486328125 2754.8662109375 2755.611083984375 2760.40576171875 2770.752197265625 2777.17919921875 2785.952880859375
2034.367431640625 2041.22998046875 2040.6727294921875 2046.3902587890625 2062.452392578125 2076.57666015625 2084.7724609375 2121.593505859375 2145.31982421875 2159.3681640625 2186.149169921875 2197.699951171875 2198.007568359375 2216.8154296875 2228.771728515625 2247.905517578125 2275.89111328125 2303.339111328125 2313.850830078125 2321.008056640625 2315.870361328125 2320.75537109375 2332.216552734375 2346.361572265625 2384.134765625 2406.30322265625 2420.22607421875 2436.445068359375 2444.087646484375 2471.89990234375 2483.6552734375 2486.793212890625 2495.798583984375 2524.2568359375 2558.052490234375 2548.243896484375 2586.2822265625 2580.155029296875 2594.212646484375 2606.74755859375 2627.359619140625 2654.27001953125 2687.840576171875 2724.060791015625 2737.529052734375 2753.814453125 2741.845947265625 2728.751953125 2730.794189453125 2748.34033203125 2738.962646484375 2702.541015625 2682.298828125 2664.267333984375 2656.9443359375 2649.442626953125 2651.056884765625 2659.0849609375 2666.775146484375 2663.623046875 2650.8876953125 2638.252197265625 2624.79931640625 2618.7490234375 2618.52001953125 2607.1337890625 2591.744140625 2577.076904296875 2568.299560546875 2565.57080078125 2552.93212890625 2541.968505859375 2530.756591796875 2526.085693359375 2538.158447265625 2545.37841796875 2545.093994140625 2560.738037109375 2556.949462890625 2556.715087890625 2557.480712890625 2553.99560546875 2542.017822265625 2533.63720703125 2539.04296875 2544.53125 2560.508056640625 2571.31005859375 2599.72509765625 2606.331298828125 2586.30419921875 2567.845458984375 2582.885009765625 2595.739990234375 2598.157470703125 2604.63525390625 2650.0126953125 2666.21533203125 2700.787841796875 2727.41259765625 2742.286865234375 2773.614013671875 2778.31103515625 2788.591552734375 2763.79833984375 2723.068359375 2712.64697265625 2694.72802734375 2677.215576171875 2656.941650390625 2628.31640625 2595.58251953125 2556.1220703125 2525.405029296875 2511.0439453125 2487.675048828125 2471.9609375 2463.885498046875 2456.0361328125 2454.474365234375 2445.8046875 2436.45947265625 2431.996826171875 2426.428955078125 2424.475341796875 2429.306640625 2424.711181640625 2423.778564453125 2409.957275390625 2397.1279296875 2405.6806640625 2403.265869140625 2403.151123046875 2400.060546875 2397.910888671875 2402.137451171875 2416.757568359375 2407.30908203125 2404.99853515625 2395.0234375 2402.69970703125 2413.034912109375 2420.856689453125 2446.244140625 2480.852294921875 2484.263671875 2490.7880859375 2507.588134765625 2540.259033203125 2560.2373046875 2561.245849609375 2583.338623046875 2623.689453125 2658.745361328125 2692.142333984375 2716.426025390625 2748.6015625 2762.784912109375 2764.135498046875 2760.504638671875 2762.93359375 2772.4794921875 2782.3662109375 2786.894775390625 2798.58251953125
2047.4190673828125 2052.16796875 2065.400634765625 2070.2265625 2091.62744140625 2106.653076171875 2104.340576171875 2129.755126953125 2165.1123046875 2177.04296875 2201.6689453125 2212.097412109375 2230.563720703125 2245.798828125 2258.50732421875 2279.86767578125 2286.99072265625 2305.283935546875 2326.843994140625 2336.076171875 2341.802978515625 2349.069580078125 2358.022216796875 2381.00537109375 2417.087890625 2443.62548828125 2464.627685546875 2476.289306640625 2487.93017578125 2514.738037109375 2527.375244140625 2535.21923828125 2555.541259765625 2551.930908203125 2593.46435546875 2587.9833984375 2606.837646484375 2612.148681640625 2621.030517578125 2645.764892578125 2662.2890625 2690.58154296875 2722.796630859375 2761.219482421875 2764.76611328125 2766.7294921875 2764.180908203125 2760.9140625 2755.412353515625 2745.112548828125 2736.08642578125 2693.65771484375 2663.930908203125 2640.878173828125 2631.226806640625 2624.768310546875 2625.2421875 2624.43408203125 2625.145751953125 2622.14013671875 2616.87939453125 2608.55322265625 2602.00244140625 2605.531494140625 2606.39697265625 2594.319580078125 2575.030029296875 2561.4755859375 2560.906005859375 2547.40283203125 2536.71630859375 2523.737060546875 2516.063232421875 2512.350830078125 2509.427490234375 2528.5869140625 2537.996826171875 2534.081787109375 2531.35693359375 2527.966796875 2520.10791015625 2509.26513671875 2501.907470703125 2508.1572265625 2510.88037109375 2519.624267578125 2552.525634765625 2588.49462890625 2601.01904296875 2589.31591796875 2576.407470703125 2562.04833984375 2568.1396484375 2581.390380859375 2593.70654296875 2612.635986328125 2641.76318359375 2676.268310546875 2705.22998046875 2728.194091796875 2749.4951171875 2762.135009765625 2760.6943359375 2752.04931640625 2720.689453125 2692.58154296875 2680.9130859375 2663.913330078125 2635.23583984375 2612.473876953125 2580.25634765625 2565.8408203125 2541.4658203125 2506.185791015625 2491.562255859375 2469.82470703125 2449.88037109375 2440.624267578125 2434.884521484375 2434.3603515625 2431.02001953125 2428.1796875 2424.1552734375 2416.208251953125 2414.6396484375 2417.556640625 2410.274169921875 2414.2099609375 2402.97314453125 2383.129638671875 2396.16455078125 2387.260986328125 2381.46240234375 2371.167236328125 2363.18359375 2367.201904296875 2369.693359375 2376.133544921875 2377.23583984375 2368.032470703125 2382.26318359375 2394.630859375 2420.453369140625 2434.49951171875 2450.920654296875 2459.041748046875 2478.60791015625 2490.97119140625 2520.66357421875 2533.49755859375 2549.145263671875 2586.73583984375 2613.207275390625 2652.037841796875 2670.6328125 2703.93017578125 2745.8818359375 2766.115966796875 2763.785400390625 2771.00048828125 2777.114013671875 2790.53271484375 2797.243896484375 2802.80126953125 2813.2548828125
2050.777587890625 2064.53369140625 2079.158447265625 2094.205322265625 2110.8994140625 2127.1494140625 2139.764404296875 2141.884765625 2163.642822265625 2192.082763671875 2219.048828125 2244.476318359375 2259.318115234375 2270.17578125 2279.182861328125 2303.66845703125 2313.514404296875 2320.80029296875 2333.788818359375 2356.88427734375 2363.56787109375 2370.39501953125 2376.75244140625 2397.10400390625 2433.884765625 2452.499267578125 2480.660888671875 2493.202392578125 2509.978759765625 2524.289306640625 2555.51806640625 2560.6953125 2578.340087890625 2579.077880859375 2609.15478515625 2628.997314453125 2642.303955078125 2660.39208984375 2655.857421875 2678.07275390625 2694.44921875 2731.291015625 2750.79443359375 2755.390380859375 2759.625 2760.75732421875 2755.1328125 2754.91455078125 2744.533447265625 2735.13525390625 2725.162841796875 2681.80078125 2647.150634765625 2629.22314453125 2617.810302734375 2608.751953125 2611.024169921875 2609.806884765625 2605.46533203125 2602.79443359375 2597.75146484375 2592.904296875 2588.387451171875 2583.110595703125 2580.630615234375 2570.578857421875 2560.550537109375 2553.64794921875 2548.692626953125 2536.01513671875 2524.95947265625 2501.995361328125 2490.434814453125 2487.5654296875 2490.416748046875 2492.055419921875 2491.884521484375 2484.802490234375 2480.77099609375 2479.770751953125 2476.44970703125 2480.11669921875 2482.206298828125 2491.959228515625 2494.54150390625 2522.191162109375 2574.85888671875 2577.6279296875 2572.774169921875 2565.00927734375 2563.486328125 2555.447509765625 2562.315673828125 2591.612548828125 2600.81201171875 2618.504150390625 2656.7109375 2680.14599609375 2717.110107421875 2736.62158203125 2741.447998046875 2736.0009765625 2720.953125 2695.757568359375 2679.007568359375 2649.796875 2631.220458984375 2617.808349609375 2577.50146484375 2571.199951171875 2540.29736328125 2530.46044921875 2513.501220703125 2491.12353515625 2473.16162109375 2452.09619140625 2431.544921875 2416.44140625 2415.94970703125 2417.583984375 2418.15380859375 2415.28466796875 2413.6240234375 2406.806884765625 2405.00439453125 2399.78955078125 2397.7744140625 2399.6044921875 2389.23974609375 2370.2919921875 2370.684814453125 2358.3828125 2354.63525390625 2347.951171875 2338.05810546875 2347.841796875 2350.158935546875 2344.510009765625 2348.171142578125 2356.1328125 2375.10546875 2380.2236328125 2398.20166015625 2417.93359375 2427.44873046875 2441.242919921875 2456.015869140625 2476.452392578125 2494.685791015625 2514.7080078125 2539.0732421875 2577.8388671875 2588.898193359375 2617.6767578125 2686.51220703125 2719.900390625 2766.376708984375 2783.6259765625 2793.42041015625 2803.706787109375 2793.37744140625 2805.14892578125 2814.685546875 2818.684326171875 2823.07666015625
2077.445556640625 2089.634765625 2102.408203125 2104.268310546875 2138.620849609375 2163.510009765625 2171.689453125 2179.9052734375 2193.042236328125 2196.983154296875 2239.8466796875 2270.745849609375 2283.847900390625 2293.361328125 2302.111083984375 2324.137939453125 2335.40234375 2346.54541015625 2355.38818359375 2375.59375 2386.18603515625 2392.407958984375 2402.597900390625 2415.12939453125 2466.937744140625 2475.3212890625 2504.529052734375 2538.43310546875 2548.56884765625 2573.390869140625 2584.74072265625 2608.337158203125 2612.08837890625 2618.36376953125 2660.7451171875 2686.2509765625 2701.86865234375 2699.780029296875 2728.708740234375 2700.406494140625 2730.90087890625 2750.95166015625 2754.3720703125 2755.510009765625 2753.9794921875 2750.488037109375 2745.948974609375 2742.376708984375 2730.727294921875 2718.2763671875 2703.53662109375 2647.55126953125 2630.279541015625 2610.09228515625 2600.853759765625 2595.546142578125 2588.3076171875 2584.3486328125 2579.97607421875 2572.666259765625 2562.61962890625 2560.66748046875 2552.638427734375 2547.3046875 2544.088134765625 2536.652587890625 2534.21484375 2527.29931640625 2530.010009765625 2516.05029296875 2509.218994140625 2505.760009765625 2485.90771484375 2479.680908203125 2473.765869140625 2474.671875 2472.430419921875 2458.3935546875 2457.893798828125 2462.016845703125 2466.762939453125 2463.145263671875 2466.31640625 2471.09228515625 2498.33935546875 2534.282958984375 2541.1552734375 2542.455322265625 2542.281982421875 2536.70458984375 2541.166015625 2553.84033203125 2559.644775390625 2583.813232421875 2609.15673828125 2630.730224609375 2668.7890625 2695.888427734375 2715.231201171875 2723.272216796875 2724.279541015625 2696.234619140625 2680.153564453125 2675.0068359375 2644.8349609375 2616.316162109375 2592.111572265625 2576.292236328125 2555.832275390625 2539.834716796875 2514.286865234375 2499.782470703125 2484.849853515625 2473.23046875 2461.735107421875 2435.026611328125 2418.834228515625 2404.379150390625 2398.387451171875 2396.759033203125 2401.999267578125 2404.204833984375 2403.013916015625 2399.49365234375 2398.283447265625 2395.313232421875 2388.169921875 2384.83251953125 2379.185302734375 2366.427490234375 2355.81689453125 2351.7119140625 2339.947021484375 2334.9404296875 2326.794677734375 2317.10302734375 2318.833251953125 2330.5205078125 2340.11474609375 2350.746826171875 2359.193603515625 2364.04296875 2382.9970703125 2402.6748046875 2415.676513671875 2428.904541015625 2444.689697265625 2465.998046875 2482.6611328125 2512.854736328125 2532.30078125 2554.237060546875 2592.666748046875 2636.2080078125 2672.2353515625 2709.79052734375 2749.78271484375 2767.7783203125 2780.473388671875 2805.69189453125 2823.974365234375 2840.824951171875 2860.3701171875 2871.1806640625 2852.658447265625
2096.1279296875 2110.81298828125 2128.75439453125 2115.9599609375 2134.847412109375 2175.709228515625 2190.983642578125 2206.733154296875 2220.049072265625 2229.797607421875 2251.939697265625 2286.79638671875 2303.911865234375 2318.422607421875 2336.89794921875 2349.671630859375 2364.98828125 2370.767333984375 2375.504150390625 2392.102294921875 2405.321533203125 2416.511962890625 2430.427001953125 2433.825927734375 2477.974853515625 2508.961181640625 2523.25341796875 2548.796875 2571.350830078125 2589.816650390625 2607.25732421875 2636.740478515625 2648.5791015625 2649.375 2681.978759765625 2719.1962890625 2740.28662109375 2736.86279296875 2737.389404296875 2749.05517578125 2748.997314453125 2746.453857421875 2743.12939453125 2738.83349609375 2737.0673828125 2735.739501953125 2730.752685546875 2724.532958984375 2710.720703125 2693.276611328125 2669.523681640625 2629.8837890625 2609.5078125 2599.209716796875 2591.708251953125 2583.92724609375 2562.6044921875 2560.296875 2553.42724609375 2544.92138671875 2528.70751953125 2529.309814453125 2526.708251953125 2521.9384765625 2520.944580078125 2514.51904296875 2511.22607421875 2509.614013671875 2502.921630859375 2497.004638671875 2490.029296875 2481.91845703125 2468.602783203125 2466.34326171875 2464.00830078125 2449.611328125 2434 2436.884033203125 2438.4453125 2442.189453125 2447.083740234375 2452.959716796875 2456.234130859375 2469.518798828125 2491.9111328125 2509.722412109375 2506.79248046875 2511.98486328125 2530.591796875 2553.806396484375 2557.4560546875 2559.49853515625 2577.7509765625 2596.515380859375 2625.34033203125 2627.29052734375 2649.534912109375 2666.93994140625 2691.1728515625 2689.75146484375 2682.623046875 2646.36083984375 2628.149658203125 2616.46533203125 2596.75146484375 2562.864990234375 2549.956787109375 2537.13525390625 2519.800537109375 2513.334716796875 2488.263671875 2459.6904296875 2466.44189453125 2458.82275390625 2460.977783203125 2432.908203125 2407.502197265625 2400.33984375 2385.160400390625 2384.74609375 2392.193603515625 2395.111572265625 2391.159912109375 2383.7958984375 2388.380126953125 2383.15380859375 2370.17822265625 2363.614990234375 2358.65478515625 2351.47216796875 2328.841064453125 2332.693359375 2318.591064453125 2315.146484375 2312.75 2306.33056640625 2313.479248046875 2323.238525390625 2333.01611328125 2340.048828125 2348.6865234375 2353.7216796875 2378.7109375 2391.67529296875 2405.6787109375 2418.997314453125 2440.177490234375 2455.36279296875 2475.278076171875 2501.651611328125 2517.44970703125 2537.716796875 2578.1240234375 2615.4970703125 2669.52001953125 2681.8798828125 2718.488037109375 2727.723388671875 2741.53759765625 2783.42529296875 2807.99072265625 2811.775146484375 2835.821533203125 2853.4658203125 2834.791259765625
2112.370361328125 2139.6015625 2168.61474609375 2165.219970703125 2154.784423828125 2184.044921875 2211.805419921875 2238.57861328125 2249.55712890625 2256.8369140625 2269.47216796875 2291.786376953125 2314.66015625 2340.66064453125 2354.237548828125 2370.535888671875 2387.0712890625 2401.02294921875 2405.591064453125 2412.31640625 2414.79931640625 2435.417724609375 2449.001708984375 2457.39892578125 2479.812744140625 2509.86474609375 2552.251220703125 2579.119140625 2591.970703125 2620.47705078125 2636.96728515625 2672.261962890625 2709.1865234375 2696.474853515625 2720.447998046875 2736.992431640625 2751.3115234375 2750.950439453125 2747.305908203125 2739.9765625 2735.293212890625 2744.5517578125 2744.825439453125 2738.814208984375 2730.739013671875 2725.857421875 2712.611083984375 2704.554931640625 2687.754150390625 2668.78173828125 2646.4970703125 2616.688720703125 2599.17236328125 2590.64990234375 2578.724609375 2565.04248046875 2549.534423828125 2541.215087890625 2525.8232421875 2515.32421875 2501.930419921875 2504.03857421875 2497.434814453125 2490.787841796875 2486.46142578125 2488.71337890625 2488.248046875 2479.324462890625 2480.69677734375 2474.244384765625 2463.935302734375 2458.569091796875 2445.535400390625 2441.500244140625 2437.903076171875 2425.066650390625 2435.92333984375 2446.864501953125 2450.94384765625 2456.560546875 2462.1650390625 2466.322509765625 2473.49853515625 2491.930908203125 2504.25390625 2502.64794921875 2517.65771484375 2534.50390625 2554.8056640625 2559.00634765625 2566.01318359375 2579.9140625 2597.548095703125 2608.991943359375 2611.304443359375 2601.182373046875 2612.11669921875 2631.862548828125 2626.634033203125 2662.815185546875 2648.221435546875 2623.004150390625 2590.4208984375 2581.103515625 2566.865966796875 2544.481201171875 2529.07861328125 2516.14501953125 2499.057373046875 2494.7216796875 2477.614013671875 2451.05029296875 2433.790283203125 2423.73779296875 2425.816650390625 2408.173583984375 2385.782470703125 2377.306640625 2367.398681640625 2369.185302734375 2377.148193359375 2381.625244140625 2358.919677734375 2356.27685546875 2366.498046875 2356.9453125 2349.1494140625 2342.3896484375 2338.970458984375 2330.710205078125 2306.929931640625 2305.825927734375 2306.739013671875 2303.56787109375 2300.911865234375 2302.16845703125 2304.853759765625 2314.189208984375 2320.82763671875 2325.3212890625 2337.169189453125 2350.135009765625 2360.55029296875 2378.545166015625 2395.16357421875 2410.912841796875 2425.0810546875 2442.1376953125 2461.5361328125 2481.591796875 2500.76611328125 2526.380126953125 2557.49853515625 2623.1611328125 2631.497802734375 2650.944091796875 2680.025146484375 2702.462158203125 2734.989013671875 2765.290771484375 2780.35205078125 2773.695556640625 2781.53466796875 2798.6298828125 2793.10791015625
2126.457763671875 2147.93310546875 2184.74609375 2192.98095703125 2192.46435546875 2182.85107421875 2223.53955078125 2251.077880859375 2268.491943359375 2274.19482421875 2289.126953125 2294.05810546875 2325.275390625 2348.1396484375 2380.0986328125 2401.658935546875 2426.052734375 2438.497802734375 2445.568115234375 2452.904052734375 2456.230224609375 2464.323486328125 2475.90771484375 2493.017333984375 2531.17626953125 2553.981201171875 2576.774658203125 2606.1435546875 2621.972900390625 2662.4228515625 2676.70947265625 2696.439208984375 2723.198974609375 2747.7197265625 2747.734619140625 2755.570556640625 2750.113037109375 2740.8056640625 2728.92041015625 2723.362060546875 2734.80859375 2728.348876953125 2720.19287109375 2705.239501953125 2696.091796875 2687.519287109375 2674.07568359375 2664.25341796875 2647.185791015625 2628.892822265625 2612.823974609375 2591.54931640625 2584.673583984375 2574.37255859375 2567.09619140625 2560.698486328125 2534.48095703125 2525.504638671875 2509.349853515625 2499.1572265625 2481.69384765625 2482.708984375 2476.712890625 2465.305908203125 2468.26806640625 2464.65869140625 2457.907470703125 2457.374755859375 2452.2568359375 2446.952880859375 2443.854248046875 2438.735595703125 2419.691650390625 2414.881591796875 2414.669677734375 2436.399169921875 2447.927001953125 2459.61962890625 2466.855224609375 2479.701904296875 2486.336181640625 2505.299560546875 2504.611083984375 2507.5791015625 2516.99658203125 2524.735595703125 2545.8154296875 2549.419921875 2558.842041015625 2571.226806640625 2579.776611328125 2594.822265625 2597.443359375 2602.94140625 2602.109130859375 2589.735107421875 2589.596435546875 2587.5947265625 2614.8212890625 2615.501220703125 2585.80615234375 2571.553466796875 2550.6884765625 2547.319580078125 2534.5791015625 2519.9599609375 2508.5888671875 2497.056884765625 2482.53125 2476.713623046875 2454.518310546875 2431.938232421875 2419.181884765625 2398.461669921875 2391.517333984375 2391.6708984375 2376.095703125 2365.734619140625 2358.25634765625 2360.789794921875 2370.18310546875 2372.9560546875 2350.017822265625 2340.1396484375 2349.2607421875 2338.71240234375 2328.513427734375 2320.690673828125 2316.013916015625 2311.293701171875 2300.0927734375 2291.55615234375 2293.486328125 2289.324951171875 2291.138916015625 2293.850830078125 2299.44189453125 2306.77783203125 2313.0224609375 2319.322998046875 2332.34033203125 2343.24560546875 2355.5888671875 2367.5654296875 2391.533447265625 2404.60107421875 2419.600830078125 2433.747802734375 2451.12353515625 2473.453125 2491.369140625 2516.008544921875 2567.694091796875 2584.48388671875 2611.844970703125 2628.729736328125 2668.940673828125 2693.1708984375 2723.4150390625 2728.82080078125 2728.10693359375 2723.86572265625 2749.920654296875 2759.9189453125 2776.335205078125
2144.86328125 2160.37158203125 2205.333251953125 2219.90283203125 2226.685546875 2226.814697265625 2245.25830078125 2257.075439453125 2279.86279296875 2297.5302734375 2310.427490234375 2317.265625 2332.570556640625 2360.749755859375 2394.66943359375 2420.453369140625 2457.31787109375 2474.6259765625 2471.3330078125 2470.980224609375 2497.42236328125 2494.516845703125 2518.71240234375 2524.910888671875 2542.1474609375 2567.733642578125 2592.603271484375 2631.987060546875 2654.674072265625 2696.7900390625 2710.549560546875 2725.695556640625 2736.78515625 2746.491455078125 2747.312255859375 2742.957275390625 2727.2353515625 2716.665771484375 2720.483154296875 2719.207275390625 2708.256591796875 2691.9921875 2681.87255859375 2672.029296875 2661.74072265625 2662.093505859375 2647.08984375 2638.971435546875 2621.47265625 2605.239501953125 2591.17431640625 2573.834716796875 2565.5751953125 2557.43359375 2549.773681640625 2536.44677734375 2521.457763671875 2507.094970703125 2492.59814453125 2483.838134765625 2464.037841796875 2453.281494140625 2449.367919921875 2452.954833984375 2446.849853515625 2440.462158203125 2441.914306640625 2433.89794921875 2430.099853515625 2423.445068359375 2412.44775390625 2400.348388671875 2402.300048828125 2418.898681640625 2433.925537109375 2444.40234375 2456.451171875 2465.8515625 2477.605224609375 2489.494873046875 2507.379150390625 2519.5126953125 2525.626708984375 2530.143798828125 2534.25146484375 2542.890625 2554.15234375 2563.90087890625 2578.243408203125 2589.27685546875 2598.000732421875 2586.22802734375 2582.8427734375 2580.254150390625 2571.813232421875 2559.839111328125 2555.913818359375 2551.136474609375 2547.60009765625 2549.29833984375 2537.61376953125 2520.6875 2512.87646484375 2518.31787109375 2511.685791015625 2501.156005859375 2490.14013671875 2477.632568359375 2462.549560546875 2446.89794921875 2431.86962890625 2411.7275390625 2400.271728515625 2375.039306640625 2362.78564453125 2359.361328125 2344.66015625 2339.2294921875 2342.099365234375 2349.61962890625 2358.44287109375 2352.03466796875 2339.741455078125 2319.393798828125 2325.127685546875 2314.52978515625 2303.60693359375 2297.165283203125 2295.770751953125 2293.703369140625 2287.049560546875 2283.12548828125 2281.13037109375 2282.664794921875 2284.135009765625 2289.917724609375 2294.09326171875 2300.92041015625 2307.938232421875 2313.57861328125 2325.058837890625 2339.056640625 2366.020263671875 2387.389892578125 2396.706298828125 2401.834228515625 2409.50634765625 2420.3623046875 2438.295166015625 2466.53173828125 2484.956298828125 2519.658935546875 2555.65087890625 2570.407470703125 2598.50146484375 2610.41162109375 2637.316162109375 2669.8701171875 2703.84033203125 2702.2744140625 2693.68408203125 2697.671630859375 2711.8564453125 2747.321044921875 2762.795654296875
2200.576416015625 2179.9033203125 2227.276611328125 2246.703857421875 2262.368896484375 2276.19970703125 2269.354736328125 2274.503173828125 2292.985595703125 2307.66357421875 2332.369384765625 2342.44873046875 2344.85546875 2358.857421875 2395.852783203125 2434.132568359375 2474.53564453125 2503.687255859375 2524.343505859375 2540.01611328125 2531.548095703125 2543.123291015625 2544.9248046875 2553.938720703125 2592.001220703125 2601.81787109375 2623.80712890625 2671.754150390625 2686.831298828125 2691.832275390625 2704.2451171875 2718.11767578125 2726.616455078125 2732.26171875 2728.97265625 2719.204345703125 2712.714599609375 2716.386474609375 2698.272216796875 2682.410400390625 2669.26806640625 2656.271728515625 2648.52880859375 2638.52978515625 2627.38916015625 2617.767333984375 2603.961669921875 2593.14990234375 2581.11376953125 2570.1904296875 2561.850830078125 2548.31201171875 2539.690673828125 2533.931884765625 2522.282958984375 2513.363037109375 2503.3828125 2490.14697265625 2472.8974609375 2447.9404296875 2445.244873046875 2442.251708984375 2444.142578125 2432.966796875 2431.3203125 2431.155517578125 2425.307861328125 2418.676025390625 2416.412841796875 2400.747802734375 2390.046142578125 2397.258544921875 2416.39892578125 2433.7919921875 2446.428955078125 2456.228515625 2467.850830078125 2475.73193359375 2483.108642578125 2499.302001953125 2516.444091796875 2540.5283203125 2551.4365234375 2556.5654296875 2558.023193359375 2564.788818359375 2581.22705078125 2592.015869140625 2608.371826171875 2613.732666015625 2604.7158203125 2581.21484375 2569.551513671875 2563.6865234375 2556.28662109375 2550.9306640625 2542.849853515625 2534.697509765625 2523.169921875 2519.998046875 2515.0078125 2500.148681640625 2492.091552734375 2497.14697265625 2497.13720703125 2491.8408203125 2464.566650390625 2447.510009765625 2431.968994140625 2419.06103515625 2403.64501953125 2391.224365234375 2380.967041015625 2363.399169921875 2351.085205078125 2336.11865234375 2324.67333984375 2328.04736328125 2334.560791015625 2346.795166015625 2352.550537109375 2338.546875 2328.275390625 2311.526611328125 2308.405029296875 2297.326171875 2287.56689453125 2284.405517578125 2283.248779296875 2276.19189453125 2271.77880859375 2274.66259765625 2273.466796875 2276.683349609375 2280.0302734375 2285.414794921875 2290.115966796875 2298.645751953125 2307.260009765625 2312.749755859375 2338.630859375 2360.215087890625 2386.29345703125 2396.245361328125 2403.7861328125 2408.305908203125 2414.91162109375 2425.480712890625 2442.032470703125 2469.956787109375 2493.8740234375 2525.771728515625 2548.494140625 2561.035888671875 2582.437255859375 2594.056884765625 2624.173828125 2666.29638671875 2679.2412109375 2676.0537109375 2672.094482421875 2674.5693359375 2684.238525390625 2706.217041015625 2729.334716796875
2223.04296875 2206.377197265625 2232.818603515625 2264.367919921875 2281.51318359375 2300.08447265625 2310.13916015625 2302.40380859375 2308.66259765625 2332.559814453125 2347.59521484375 2364.181884765625 2372.01220703125 2381.569580078125 2413.539306640625 2453.0556640625 2475.58447265625 2523.614990234375 2550.41064453125 2570.7958984375 2566.666748046875 2564.03759765625 2563.82080078125 2578.650390625 2625.520263671875 2620.88134765625 2659.2490234375 2677.8671875 2690.323974609375 2692.448974609375 2703.05859375 2712.33642578125 2713.693359375 2711.265625 2705.906494140625 2704.757568359375 2696.261474609375 2681.320556640625 2661.2158203125 2640.89306640625 2630.44189453125 2618.26416015625 2613.084716796875 2605.161376953125 2596.343994140625 2589.24169921875 2575.42041015625 2563.16064453125 2558.57568359375 2548.609375 2541.400146484375 2528.698974609375 2522.9267578125 2514.38623046875 2507.38671875 2494.556884765625 2488.283447265625 2472.216796875 2445.74853515625 2436.457763671875 2439.36083984375 2434.84375 2424.25830078125 2423.0263671875 2417.034423828125 2405.548583984375 2401.780029296875 2392.74169921875 2386.0703125 2401.1416015625 2419.697509765625 2426.20654296875 2440.060302734375 2452.399169921875 2463.14013671875 2475.97802734375 2491.159912109375 2500.92626953125 2519.48046875 2527.822509765625 2548.140625 2565.836181640625 2569.23974609375 2575.21923828125 2589.2783203125 2600.7763671875 2615.901123046875 2625.68212890625 2623.236572265625 2617.08935546875 2606.092529296875 2566.662841796875 2541.438720703125 2528.379150390625 2535.741455078125 2535.464111328125 2524.6962890625 2505.251220703125 2495.73828125 2485.500244140625 2480.94384765625 2460.50927734375 2464.522216796875 2466.35546875 2468.28662109375 2446.4990234375 2432.04150390625 2417.233642578125 2403.320556640625 2392.68408203125 2379.76708984375 2370.668212890625 2365.398193359375 2346.918701171875 2334.89404296875 2322.974365234375 2313.298828125 2315.161865234375 2332.1552734375 2342.279296875 2329.847412109375 2319.130126953125 2300.2421875 2291.38671875 2279.60205078125 2273.3291015625 2268.9375 2263.599609375 2262.862548828125 2260.94677734375 2265.016357421875 2265.402587890625 2270.418701171875 2274.18798828125 2277.176025390625 2283.31298828125 2289.97705078125 2302.35888671875 2318.6044921875 2335.544677734375 2362.635986328125 2379.676025390625 2397.873046875 2406.40576171875 2416.97509765625 2423.89501953125 2432.318603515625 2440.58544921875 2454.685791015625 2479.3017578125 2504.836669921875 2525.24658203125 2546.8984375 2558.017578125 2569.932373046875 2598.634765625 2621.608154296875 2657.936279296875 2660.1611328125 2660.3330078125 2657.9892578125 2661.615966796875 2674.077880859375 2688.810546875 2708.454345703125
2249.5859375 2258.069580078125 2245.722900390625 2286.689697265625 2308.22509765625 2330.379150390625 2342.046875 2350.402099609375 2345.373046875 2337.68896484375 2355.11181640625 2377.178466796875 2390.374755859375 2396.442626953125 2423.733154296875 2458.604736328125 2507.229736328125 2539.5751953125 2566.0908203125 2594.659423828125 2593.916259765625 2592.348388671875 2601.014892578125 2632.590087890625 2658.705322265625 2686.534912109375 2671.330322265625 2707.000244140625 2698.142578125 2689.302734375 2695.72265625 2695.509521484375 2692.3564453125 2695.97802734375 2698.427978515625 2686.503662109375 2670.92041015625 2652.42578125 2630.804443359375 2608.90283203125 2601.649658203125 2592.078369140625 2586.976806640625 2580.96728515625 2572.261474609375 2563.14013671875 2551.73486328125 2542.97509765625 2531.401611328125 2521.234375 2518.258056640625 2505.029296875 2497.81640625 2487.48974609375 2481.035888671875 2473.215087890625 2457.145751953125 2439.814453125 2425.52490234375 2433.36181640625 2429.458984375 2424.16552734375 2420.432861328125 2403.0751953125 2400.750732421875 2393.652099609375 2385.350341796875 2384.87109375 2406.892822265625 2422.192138671875 2431.93408203125 2438.228515625 2453.06591796875 2457.962890625 2478.47216796875 2492.049560546875 2511.03466796875 2518.075927734375 2542.777587890625 2567.51806640625 2569.016357421875 2580.51123046875 2594.356201171875 2609.13330078125 2626.159423828125 2635.88134765625 2635.087646484375 2629.27294921875 2619.291259765625 2606.25634765625 2594.69677734375 2568.7890625 2543.040283203125 2528.167724609375 2517.1357421875 2522.369384765625 2503.50537109375 2489.672119140625 2478.99169921875 2466.70703125 2457.9375 2444.230712890625 2451.263427734375 2450.122314453125 2447.105224609375 2421.544921875 2398.99853515625 2392.43310546875 2381.862548828125 2374.56396484375 2364.31005859375 2357.661376953125 2350.6337890625 2337.29638671875 2318.8720703125 2308.68212890625 2303.419921875 2314.577392578125 2324.139404296875 2320.829833984375 2310.692626953125 2297.802001953125 2281.74609375 2274.450439453125 2269.541748046875 2259.135009765625 2256.1298828125 2256.413330078125 2254.68505859375 2257.144775390625 2260.25146484375 2262.924072265625 2266.478515625 2273.787841796875 2285.20849609375 2302.257568359375 2318.97998046875 2335.9775390625 2354.647705078125 2368.48974609375 2388.99560546875 2403.53369140625 2415.142822265625 2425.29296875 2436.525390625 2442.328369140625 2445.8203125 2458.258056640625 2470.748779296875 2502.538330078125 2516.34423828125 2530.33984375 2556.780029296875 2565.450439453125 2583.97509765625 2597.50537109375 2611.4462890625 2627.7412109375 2636.52880859375 2646.606689453125 2653.464111328125 2663.8603515625 2675.78125 2697.396240234375 2715.042724609375
2260.145751953125 2276.402099609375 2275.55859375 2298.3017578125 2319.484375 2347.26416015625 2361.43115234375 2374.400146484375 2379.766357421875 2373.578125 2379.05810546875 2398.56787109375 2418.496826171875 2427.340087890625 2459.261474609375 2487.626220703125 2513.614990234375 2554.088623046875 2579.21484375 2618.005615234375 2660.7197265625 2674.264404296875 2655.578125 2686.87744140625 2704.547119140625 2721.16748046875 2720.34912109375 2714.4384765625 2703.06005859375 2687.71484375 2681.335205078125 2679.27099609375 2685.487548828125 2682.593505859375 2670.492431640625 2654.0693359375 2627.9697265625 2607.983154296875 2584.473876953125 2566.16455078125 2558.598876953125 2550.135498046875 2547.181884765625 2540.44775390625 2532.404541015625 2522.968017578125 2513.86669921875 2508.98193359375 2503.08544921875 2495.848388671875 2477.8671875 2480.4033203125 2470.150390625 2459.458740234375 2452.02490234375 2443.365478515625 2428.437744140625 2410.256103515625 2430.715087890625 2426.998291015625 2415.26025390625 2408.37451171875 2402.75830078125 2389.77978515625 2383.27978515625 2377.835205078125 2386.702880859375 2415.31689453125 2428.309814453125 2439.38818359375 2443.485107421875 2446.412841796875 2470.10986328125 2486.57861328125 2507.70556640625 2514.840576171875 2537.694091796875 2554.501953125 2570.38427734375 2580.165771484375 2595.794189453125 2621.198486328125 2620.418701171875 2630.978271484375 2645.597412109375 2640.00146484375 2629.99169921875 2619.4970703125 2611.45947265625 2605.228759765625 2596.051025390625 2571.992919921875 2550.4853515625 2537.356689453125 2517.525390625 2489.201416015625 2476.732177734375 2468.7734375 2464.2890625 2456.146240234375 2438.643798828125 2428.354736328125 2428.054931640625 2418.754638671875 2408.643798828125 2391.531494140625 2377.44140625 2370.1708984375 2366.24462890625 2359.25732421875 2350.8544921875 2348.431396484375 2342.863037109375 2325.000732421875 2308.43701171875 2299.545654296875 2296.43212890625 2304.16015625 2301.537353515625 2286.635498046875 2275.51171875 2268.9775390625 2263.1015625 2257.33056640625 2258.93994140625 2249.951904296875 2249.81201171875 2250.517333984375 2252.81201171875 2254.588623046875 2258.161376953125 2260.93310546875 2272.69482421875 2296.65283203125 2303.707275390625 2321.9736328125 2329.45458984375 2353.2265625 2371.2607421875 2383.530517578125 2401.541748046875 2416.524658203125 2426.327392578125 2434.79736328125 2444.112060546875 2450.930908203125 2459.595703125 2474.158203125 2485.968017578125 2508.279052734375 2519.202880859375 2537.462158203125 2562.35986328125 2578.234619140625 2605.769775390625 2620.099365234375 2631.2880859375 2648.892578125 2659.736083984375 2662.242431640625 2664.47607421875 2675.88671875 2702.50439453125 2702.8505859375 2701.357666015625
2281.07177734375 2294.611572265625 2299.741455078125 2311.866943359375 2332.771728515625 2367.376220703125 2387.937255859375 2401.75439453125 2412.4814453125 2418.203369140625 2430.40625 2442.855224609375 2448.343017578125 2449.78955078125 2498.160888671875 2531.292236328125 2545.265869140625 2559.61083984375 2578.966552734375 2619.2373046875 2658.667724609375 2693.51806640625 2691.3525390625 2710.874267578125 2729.645263671875 2723.3056640625 2717.83935546875 2707.150390625 2697.626953125 2678.07373046875 2672.863525390625 2667.16845703125 2660.873291015625 2651.33447265625 2639.364501953125 2621.9248046875 2593.466796875 2572.3017578125 2552.133056640625 2541.755126953125 2534.72216796875 2525.44287109375 2522.9248046875 2517.646240234375 2508.949951171875 2499.787353515625 2493.39794921875 2491.121337890625 2484.81884765625 2477.283935546875 2466.28173828125 2451.697265625 2443.90087890625 2433.598388671875 2425.63720703125 2413.601806640625 2401.47509765625 2408.83837890625 2419.139404296875 2408.3896484375 2391.125732421875 2387.7685546875 2380.680419921875 2372.82177734375 2375.0302734375 2390.39990234375 2406.6220703125 2428.423828125 2439.466552734375 2431.2861328125 2440.116455078125 2468.228759765625 2478.109375 2504.932373046875 2513.4580078125 2535.2080078125 2555.03759765625 2569.384765625 2575.001708984375 2601.92626953125 2616.071044921875 2638.8173828125 2652.85302734375 2652.9150390625 2634.75830078125 2620.970947265625 2605.1259765625 2598.931396484375 2598.558349609375 2586.715576171875 2574.89111328125 2553.082763671875 2528.301513671875 2501.859375 2482.750732421875 2463.9638671875 2449.541748046875 2446.899658203125 2446.482666015625 2433.834228515625 2420.342041015625 2422.94873046875 2406.295654296875 2395.519775390625 2384.83447265625 2372.85107421875 2358.748779296875 2354.0517578125 2350.604736328125 2344.84814453125 2330.1171875 2321.806396484375 2315.187255859375 2298.722900390625 2290.507080078125 2282.03955078125 2281.731201171875 2278.75146484375 2267.89208984375 2255.020263671875 2251.317626953125 2249.107177734375 2245.43994140625 2249.700439453125 2246.438232421875 2245.30810546875 2247.318359375 2262.00732421875 2258.69775390625 2255.890869140625 2269.9287109375 2275.692626953125 2301.603271484375 2314.855224609375 2329.75244140625 2340.031494140625 2352.92919921875 2370.072021484375 2386.1826171875 2407.1865234375 2419.6142578125 2429.162841796875 2433.6220703125 2437.96240234375 2452.0234375 2460.6455078125 2474.369384765625 2492.198486328125 2501.721923828125 2524.613037109375 2536.6689453125 2572.365234375 2605.72021484375 2618.0380859375 2634.191162109375 2651.959228515625 2671.74609375 2683.945068359375 2681.95654296875 2679.974609375 2677.37548828125 2677.186767578125 2680.30224609375 2684.723388671875 2686.620849609375
2307.18701171875 2312.57568359375 2327.38427734375 2332.77001953125 2347.884765625 2384.015869140625 2415.05517578125 2432.6103515625 2447.2548828125 2453.66357421875 2459.926025390625 2484.386474609375 2492.019287109375 2504.47802734375 2521.236328125 2542.01513671875 2578.48681640625 2605.20751953125 2628.9501953125 2657.672607421875 2684.69921875 2705.406005859375 2733.9658203125 2729.191650390625 2719.38916015625 2707.691162109375 2698.4296875 2689.956298828125 2681.651123046875 2677.446044921875 2657.315185546875 2640.89697265625 2632.18896484375 2621.204345703125 2608.800048828125 2592.22314453125 2562.73876953125 2544.697021484375 2525.333251953125 2505.44482421875 2494.741943359375 2485.69140625 2483.947998046875 2480.386474609375 2475.548095703125 2468.260986328125 2461.4140625 2456.864501953125 2451.136474609375 2444.4443359375 2436.1259765625 2426.16650390625 2406.035888671875 2399.59521484375 2390.281494140625 2382.6513671875 2390.301025390625 2414.74365234375 2401.7412109375 2391.2744140625 2376.462646484375 2374.50732421875 2370.644287109375 2374.0458984375 2381.960693359375 2390.69287109375 2402.755615234375 2431.0009765625 2420.496826171875 2430.552978515625 2448.33154296875 2474.376953125 2493.522216796875 2514.909423828125 2542.922607421875 2558.527099609375 2566.722412109375 2577.966064453125 2602.261474609375 2623.670166015625 2626.290771484375 2631.49560546875 2639.290771484375 2633.177001953125 2603.041015625 2596.840087890625 2588.76171875 2595.0126953125 2588.83447265625 2577.123291015625 2559.009033203125 2538.027099609375 2515.61767578125 2490.6669921875 2470.03759765625 2452.068603515625 2435.047607421875 2428.89453125 2422.859375 2410.534423828125 2405.19287109375 2405.552734375 2400.743896484375 2375.384033203125 2366.84716796875 2355.228271484375 2347.28173828125 2346.552978515625 2345.819580078125 2341.279296875 2321.579833984375 2303.501708984375 2301.106201171875 2290.52587890625 2280.71533203125 2274.516357421875 2266.720947265625 2259.14208984375 2253.30859375 2247.736083984375 2243.74951171875 2238.018798828125 2240.19140625 2241.49609375 2244.95654296875 2258.533203125 2265.499267578125 2271.212646484375 2275.255126953125 2275.433837890625 2287.3466796875 2311.697021484375 2316.571533203125 2338.789794921875 2349.160888671875 2360.770263671875 2371.092529296875 2379.935302734375 2395.90625 2408.4404296875 2421.11865234375 2433.830078125 2440.31640625 2445.299072265625 2465.697265625 2474.310302734375 2489.0546875 2506.71337890625 2522.607421875 2554.674560546875 2597.890380859375 2630.064208984375 2650.2529296875 2661.467529296875 2660.790283203125 2659.484619140625 2662.889404296875 2668.3525390625 2672.41650390625 2662.571044921875 2660.52734375 2664.271240234375 2675.1123046875 2678.067626953125 2673.081298828125
2342.427978515625 2341.47900390625 2348.519287109375 2357.910888671875 2373.8974609375 2402.396240234375 2439.24658203125 2476.2080078125 2478.927978515625 2502.89794921875 2508.634765625 2516.991943359375 2517.246337890625 2536.07666015625 2557.347412109375 2559.085693359375 2598.172119140625 2636.2109375 2651.783935546875 2677.95458984375 2701.971923828125 2721.115966796875 2724.658447265625 2718.355712890625 2708.510986328125 2693.431640625 2681.208984375 2675.568115234375 2670.89697265625 2654.736572265625 2633.634765625 2608.766845703125 2601.1220703125 2592.70068359375 2576.1474609375 2562.37158203125 2531.959228515625 2515.5986328125 2495.5693359375 2475.481689453125 2466.76416015625 2456.391357421875 2459.218505859375 2464.557373046875 2458.52978515625 2451.864013671875 2438.996337890625 2433.7294921875 2427.3203125 2420.802734375 2413.72119140625 2407.953125 2396.69140625 2373.010986328125 2371.8017578125 2374.875 2392.904052734375 2401.42822265625 2381.498779296875 2375.691650390625 2368.761962890625 2368.284912109375 2378.848876953125 2386.173828125 2384.3525390625 2395.8740234375 2410.33203125 2417.598876953125 2416.137451171875 2435.935302734375 2458.377197265625 2486.472412109375 2500.22900390625 2534.749267578125 2559.3203125 2562.59228515625 2590.910400390625 2605.456298828125 2621.720703125 2619.99365234375 2612.486083984375 2605.455810546875 2603.434814453125 2603.754638671875 2586.024169921875 2575.31689453125 2572.658447265625 2574.983154296875 2572.17138671875 2557.74072265625 2542.635498046875 2518.006103515625 2494.733642578125 2466.4365234375 2454.481689453125 2437.3154296875 2423.412109375 2408.878662109375 2395.90185546875 2393.727294921875 2391.135498046875 2391.45068359375 2382.85498046875 2368.216552734375 2358.38037109375 2334.326171875 2342.83349609375 2341.2724609375 2337.17919921875 2325.000732421875 2307.814453125 2291.497314453125 2280.123046875 2270.47900390625 2257.072265625 2251.69921875 2244.885498046875 2243.052978515625 2240.539306640625 2237.556884765625 2230.948486328125 2233.030029296875 2237.31591796875 2245.164306640625 2258.703857421875 2275.8486328125 2274.005859375 2282.4658203125 2285.061279296875 2285.637939453125 2298.37548828125 2313.93701171875 2321.701416015625 2342.567626953125 2355.104248046875 2370.866455078125 2385.128662109375 2402.413330078125 2412.51611328125 2423.834716796875 2434.688232421875 2444.039794921875 2449.199462890625 2457.221435546875 2480.25634765625 2488.9208984375 2501.12109375 2528.30078125 2544.02001953125 2590.791259765625 2631.650390625 2646.93115234375 2643.9658203125 2638.2158203125 2629.6728515625 2635.085693359375 2644.602783203125 2647.760498046875 2652.9951171875 2651.81201171875 2655.5078125 2662.0087890625 2661.3291015625 2651.5712890625 2644.74658203125
2390.263427734375 2379.95654296875 2383.30859375 2384.668212890625 2396.69189453125 2406.45068359375 2441.6318359375 2478.90771484375 2523.685302734375 2551.02001953125 2542.883056640625 2546.28564453125 2546.74169921875 2563.064697265625 2602.602783203125 2633.906005859375 2652.975341796875 2670.39892578125 2693.72216796875 2706.872314453125 2709.62353515625 2707.809814453125 2703.423828125 2693.042724609375 2679.772216796875 2668.008056640625 2668.1474609375 2650.445556640625 2638.70947265625 2624.453125 2615.122314453125 2584.895751953125 2578.088623046875 2568.9501953125 2555.470947265625 2539.23095703125 2509.92138671875 2496.459716796875 2475.822509765625 2454.6865234375 2444.43798828125 2434.5625 2439.333984375 2437.966552734375 2432.975830078125 2423.10595703125 2405.218017578125 2401.20751953125 2398.656494140625 2392.623046875 2386.0712890625 2380.671142578125 2371.658935546875 2356.178955078125 2354.886962890625 2378.045166015625 2383.4921875 2373.412109375 2366.61376953125 2365.26123046875 2367.41357421875 2376.7529296875 2382.9169921875 2392.7705078125 2408.9453125 2414.208740234375 2410.957275390625 2412.208251953125 2421.6630859375 2446.214599609375 2470.221923828125 2485.20751953125 2511.077392578125 2539.803466796875 2558.9140625 2583.94677734375 2606.35302734375 2620.56494140625 2615.854736328125 2602.21337890625 2590.2109375 2583.401123046875 2574.768310546875 2576.324951171875 2567.441162109375 2561.2578125 2558.872802734375 2558.8212890625 2554.159423828125 2546.228759765625 2536.447998046875 2514.113525390625 2492.92041015625 2459.47607421875 2444.765625 2427.0234375 2413.626708984375 2404.60498046875 2385.4580078125 2381.201904296875 2378.159423828125 2374.19873046875 2365.237060546875 2353.633544921875 2346.820068359375 2325.4609375 2333.492919921875 2330.57275390625 2321.6103515625 2307.04296875 2292.507568359375 2277.328125 2264.67431640625 2252.00341796875 2245.832763671875 2238.669921875 2236.923095703125 2236.3232421875 2235.37646484375 2230.861328125 2229.91455078125 2234.248291015625 2249.02099609375 2261.505615234375 2271.2265625 2282.656982421875 2289.538330078125 2299.23876953125 2304.416015625 2314.041259765625 2318.403564453125 2331.24267578125 2341.58837890625 2356.51220703125 2364.80322265625 2383.64892578125 2403.041259765625 2409.115234375 2413.43017578125 2428.99560546875 2438.995361328125 2445.026611328125 2453.519287109375 2470.4482421875 2507.334228515625 2523.306640625 2521.364013671875 2562.560546875 2599.21337890625 2623.790283203125 2626.71630859375 2614.170166015625 2613.880615234375 2607.32177734375 2595.795654296875 2583.694091796875 2582.564208984375 2594.282470703125 2603.774658203125 2630.758544921875 2634.8828125 2630.97509765625 2631.806884765625 2612.345458984375 2614.03564453125
2407.791259765625 2419.24853515625 2411.67529296875 2411.0439453125 2424.379150390625 2457.314453125 2463.393798828125 2474.978759765625 2504.915283203125 2556.57666015625 2582.5537109375 2576.36669921875 2578.761474609375 2601.995361328125 2642.89111328125 2678.8662109375 2688.98046875 2691.53173828125 2694.752685546875 2694.246337890625 2696.121337890625 2694.306884765625 2685.22265625 2677.05078125 2665.8251953125 2660.795654296875 2641.095703125 2626.784912109375 2617.361083984375 2604.1630859375 2581.820556640625 2552.43994140625 2541.295654296875 2532.7548828125 2516.71630859375 2505.74560546875 2479.18408203125 2462.576171875 2441.1328125 2422.40087890625 2411.16943359375 2405.679931640625 2406.58349609375 2398.117919921875 2388.10400390625 2372.925537109375 2370.325927734375 2368.088134765625 2367.862548828125 2359.173828125 2355.172119140625 2354.197021484375 2347.51513671875 2344.529296875 2361.33837890625 2373.593505859375 2369.864990234375 2358.53369140625 2366.174560546875 2371.22705078125 2384.20263671875 2390.9580078125 2401.511962890625 2409.651611328125 2406.636962890625 2407.62890625 2411.779052734375 2417.62744140625 2426.129150390625 2452.31982421875 2460.939208984375 2488.600830078125 2506.7900390625 2533.43310546875 2573.76806640625 2592.6669921875 2606.121337890625 2604.049072265625 2589.77490234375 2572.5869140625 2560.609375 2556.872314453125 2549.2041015625 2550.922119140625 2542.46337890625 2544.553955078125 2535.817626953125 2534.7255859375 2523.32373046875 2518.382080078125 2506.4384765625 2516.244140625 2496.17236328125 2461.998046875 2441.288330078125 2419.828369140625 2401.6884765625 2392.70068359375 2382.7421875 2378.7998046875 2371.032470703125 2361.623291015625 2363.232666015625 2347.794677734375 2333.330322265625 2318.06884765625 2317.229248046875 2323.758056640625 2308.277587890625 2292.302001953125 2281.832763671875 2268.826171875 2254.93359375 2242.53271484375 2227.794189453125 2225.531005859375 2232.380126953125 2226.762939453125 2224.4111328125 2232.800537109375 2242.074462890625 2253.485595703125 2274.255859375 2277.2138671875 2284.435302734375 2294.184814453125 2302.827392578125 2315.509521484375 2319.1611328125 2323.2890625 2328.900390625 2338.745361328125 2356.357421875 2372.493896484375 2384.417236328125 2393.080810546875 2403.838134765625 2408.53759765625 2414.254638671875 2427.8486328125 2436.297607421875 2453.002685546875 2499.46826171875 2530.884765625 2537.765869140625 2554.795654296875 2597.26953125 2616.860595703125 2617.974365234375 2619.668701171875 2603.548828125 2595.998779296875 2603.2421875 2584.68359375 2582.47216796875 2563.484619140625 2554.945556640625 2559.13427734375 2584.845947265625 2589.820068359375 2624.323974609375 2616.695068359375 2605.673095703125 2602.7255859375 2592.35546875
2433.343017578125 2451.85498046875 2460.21923828125 2446.39208984375 2452.443603515625 2481.68798828125 2508.9345703125 2517.325927734375 2518.789794921875 2555.78857421875 2591.67529296875 2614.9462890625 2618.4580078125 2632.9169921875 2676.944580078125 2683.800537109375 2683.633056640625 2681.87255859375 2679.814208984375 2677.99462890625 2676.80322265625 2672.828125 2665.3046875 2660.09033203125 2655.744873046875 2642.376220703125 2610.326171875 2596.653564453125 2587.0107421875 2577.794189453125 2560.01416015625 2529.29736328125 2516.46630859375 2505.09521484375 2496.111083984375 2484.553466796875 2460.2783203125 2438.51953125 2423.918701171875 2400.100341796875 2393.939453125 2384.605224609375 2383.171875 2371.845458984375 2358.7099609375 2344.313232421875 2338.505859375 2339.16259765625 2336.148681640625 2325.243896484375 2319.559326171875 2326.377685546875 2333.052978515625 2333.120361328125 2340.34765625 2349.989501953125 2365.802001953125 2374.19091796875 2387.282470703125 2390.330322265625 2399.642578125 2402.165283203125 2408.83935546875 2406.564697265625 2407.598388671875 2407.529296875 2413.33447265625 2423.278564453125 2447.4736328125 2452.879638671875 2474.150390625 2498.425537109375 2520.431396484375 2551.470458984375 2576.67578125 2581.02001953125 2576.71826171875 2569.009521484375 2553.27587890625 2542.6259765625 2535.2080078125 2527.59765625 2522.31103515625 2521.081787109375 2516.955322265625 2518.51806640625 2514.3017578125 2508.013427734375 2496.539794921875 2494.194091796875 2492.625732421875 2500.402587890625 2489.5908203125 2466.570068359375 2443.138427734375 2417.860107421875 2398.05615234375 2392.61669921875 2382.083740234375 2373.665283203125 2364.760498046875 2351.09765625 2344.47021484375 2334.849853515625 2325.2646484375 2303.002685546875 2306.045166015625 2307.99609375 2279.79150390625 2273.520263671875 2263.91796875 2250.375732421875 2231.307861328125 2221.165771484375 2211.6728515625 2219.052001953125 2218.529541015625 2234.329345703125 2240.05615234375 2248.544921875 2263.1044921875 2272.546630859375 2288.85888671875 2294.352294921875 2306.83642578125 2310.31689453125 2314.39892578125 2327.21435546875 2342.73681640625 2346.64501953125 2351.823974609375 2374.768310546875 2402.681640625 2407.853271484375 2411.91748046875 2410.51611328125 2416.752685546875 2418.59619140625 2425.542724609375 2443.507568359375 2467.77099609375 2516.176513671875 2547.69677734375 2555.3779296875 2569.09521484375 2580.51953125 2595.497802734375 2621.359130859375 2614.026611328125 2605.2783203125 2579.16845703125 2568.67431640625 2555.79541015625 2552.095947265625 2539.908447265625 2525.333984375 2521.061279296875 2523.732666015625 2532.508056640625 2547.109619140625 2557.91845703125 2565.410888671875 2561.52197265625 2560.396240234375 2564.750244140625
2437.590087890625 2490.60791015625 2499.9541015625 2488.507080078125 2496.788818359375 2488.523681640625 2529.312255859375 2561.538818359375 2554.4287109375 2587.512451171875 2623.019775390625 2635.949462890625 2677.79931640625 2679.5380859375 2681.416015625 2675.5712890625 2670.153564453125 2667.79150390625 2663.22021484375 2658.707763671875 2651.36865234375 2649.446044921875 2651.704345703125 2649.019287109375 2636.56396484375 2617.64306640625 2588.7890625 2568.144287109375 2555.739990234375 2550.77587890625 2536.15185546875 2505.08984375 2493.271728515625 2477.218994140625 2462.082275390625 2451.44873046875 2426.535400390625 2407.454833984375 2397.905029296875 2372.017822265625 2360.400634765625 2345.62158203125 2339.486572265625 2329.439697265625 2318.74609375 2304.492431640625 2293.763916015625 2283.38427734375 2311.265625 2327.30615234375 2344.272705078125 2350.28125 2360.524658203125 2369.169677734375 2372.333740234375 2376.80712890625 2388.595703125 2394.595703125 2403.903076171875 2415.32568359375 2424.207763671875 2415.060546875 2407.551513671875 2406.646728515625 2406.772705078125 2411.30078125 2418.749755859375 2430.338623046875 2445.543212890625 2466.098388671875 2486.505615234375 2526.1767578125 2536.188720703125 2561.767822265625 2558.354736328125 2555.836181640625 2547.72119140625 2540.169921875 2531.51025390625 2524.61328125 2520.03955078125 2513.399658203125 2508.336181640625 2503.776123046875 2500.136474609375 2497.73779296875 2492.772216796875 2489.784912109375 2478.24853515625 2474.048828125 2472.8125 2477.3916015625 2474.330078125 2465.9560546875 2452.151123046875 2422.22314453125 2397.3193359375 2387.73486328125 2373.49658203125 2366.616943359375 2357.947998046875 2346.049560546875 2338.120361328125 2326.6298828125 2312.29248046875 2290.25146484375 2299.164306640625 2287.6640625 2271.096923828125 2260.646240234375 2255.63623046875 2235.978271484375 2224.546142578125 2215.128173828125 2209.207763671875 2210.245849609375 2227.612060546875 2255.269775390625 2260.026611328125 2263.3056640625 2281.181884765625 2290.164794921875 2302.33544921875 2308.7001953125 2320.5517578125 2337.405029296875 2345.450439453125 2352.8994140625 2362.541015625 2363.4169921875 2377.77294921875 2398.596435546875 2417.696533203125 2424.685791015625 2424.424560546875 2422.94677734375 2425.882568359375 2431.416259765625 2443.761962890625 2486.274169921875 2505.03173828125 2531.265869140625 2554.96435546875 2557.800537109375 2562.27392578125 2567.82177734375 2577.724365234375 2609.27490234375 2596.6005859375 2579.420166015625 2554.15185546875 2540.373779296875 2526.009033203125 2520.205078125 2509.8642578125 2500.108642578125 2502.500732421875 2505.889892578125 2519.46630859375 2531.55517578125 2545.913818359375 2551.575927734375 2552.091796875 2554.176025390625 2560.524658203125
2454.323486328125 2488.50634765625 2538.2001953125 2528.21533203125 2524.6552734375 2527.440185546875 2536.431396484375 2596.159423828125 2586.521484375 2599.6103515625 2626.933349609375 2660.606689453125 2681.99072265625 2679.565185546875 2671.384765625 2667.021728515625 2662.95751953125 2658.83251953125 2652.16455078125 2645.86181640625 2645.760498046875 2643.07080078125 2634.361328125 2624.162353515625 2612.85693359375 2595.9404296875 2560.548583984375 2541.046142578125 2527.036865234375 2519.0087890625 2509.96533203125 2486.495849609375 2467.5439453125 2452.679931640625 2435.950927734375 2425.60791015625 2406.997802734375 2394.99072265625 2379.89306640625 2351.426025390625 2338.213134765625 2322.88720703125 2314.6357421875 2304.89501953125 2302.074462890625 2277.590576171875 2284.83447265625 2300.7451171875 2333.787353515625 2339.9560546875 2363.667236328125 2385.753662109375 2396.7900390625 2397.982177734375 2397.94775390625 2398.763671875 2407.427978515625 2415.530029296875 2429.681884765625 2434.61328125 2422.743408203125 2411.718017578125 2409.639892578125 2412.322265625 2408.83740234375 2413.110595703125 2429.005859375 2438.864013671875 2457.453857421875 2490.149658203125 2514.961181640625 2535.844482421875 2546.67431640625 2556.475830078125 2545.385498046875 2535.533447265625 2528.213134765625 2519.079833984375 2515.9619140625 2501.491455078125 2494.924072265625 2485.783935546875 2477.5419921875 2475.278076171875 2471.040283203125 2469.03173828125 2467.54443359375 2461.04150390625 2455.061279296875 2450.99169921875 2455.942138671875 2457.14208984375 2458.041748046875 2460.947998046875 2452.7197265625 2434.96875 2395.444091796875 2382.420166015625 2366.6357421875 2359.4169921875 2350.41259765625 2340.64453125 2333.542724609375 2318.310546875 2307.70166015625 2297.163330078125 2267.539794921875 2262.6474609375 2255.627685546875 2245.59228515625 2233.935546875 2216.837158203125 2212.35791015625 2195.83984375 2214.3232421875 2230.083740234375 2245.236328125 2257.748779296875 2270.68994140625 2274.501953125 2301.258544921875 2314.18408203125 2334.546630859375 2349.006591796875 2362.61083984375 2375.49072265625 2380.94775390625 2403.68505859375 2392.003173828125 2395.607177734375 2430.847900390625 2440.193603515625 2445.32470703125 2444.9892578125 2444.033203125 2450.5869140625 2451.31982421875 2495.86328125 2498.793701171875 2515.1015625 2528.4306640625 2546.509033203125 2540.9482421875 2547.069580078125 2540.18408203125 2550.494140625 2560.34423828125 2590.1064453125 2584.082275390625 2563.708251953125 2536.303955078125 2524.690673828125 2513.258544921875 2503.642333984375 2494.779052734375 2488.900390625 2486.542724609375 2489.1455078125 2509.866455078125 2529.37353515625 2542.4853515625 2540.283203125 2542.169921875 2554.5380859375 2575.35693359375
2470.968505859375 2504.02783203125 2540.423583984375 2552.5556640625 2553.677978515625 2577.93505859375 2579.10009765625 2597.52734375 2643.28955078125 2636.32666015625 2661.87646484375 2668.494384765625 2663.361572265625 2662.7841796875 2657.3388671875 2653.348876953125 2648.094482421875 2636.76025390625 2628.38818359375 2623.26416015625 2619.00830078125 2612.281982421875 2600.6494140625 2592.833251953125 2579.6328125 2575.1083984375 2546.020751953125 2524.3984375 2503.639892578125 2497.079345703125 2488.63134765625 2471.677734375 2454.701904296875 2436.08447265625 2415.6474609375 2406.10791015625 2390.65966796875 2374.115234375 2357.63916015625 2320.385498046875 2302.75634765625 2292.87158203125 2281.993408203125 2273.06201171875 2271.24560546875 2289.099853515625 2319.67236328125 2322.61376953125 2344.12841796875 2364.52734375 2398.59521484375 2412.3740234375 2415.484619140625 2422.793701171875 2423.526611328125 2421.219482421875 2430.524658203125 2433.458984375 2433.999755859375 2428.988037109375 2415.419921875 2413.208740234375 2414.77587890625 2416.31982421875 2415.30859375 2420.637939453125 2443.946044921875 2452.68505859375 2470.67626953125 2508.303466796875 2535.24609375 2541.236328125 2538.158447265625 2535.76416015625 2522.3837890625 2518.61376953125 2509.640625 2499.429443359375 2488.248779296875 2476.384521484375 2471.515380859375 2470.321044921875 2463.495361328125 2457.35009765625 2453.898681640625 2452.09375 2455.8232421875 2444.701171875 2439.59814453125 2432.06787109375 2443.19287109375 2444.79150390625 2447.1044921875 2447.624267578125 2443.741943359375 2432.060302734375 2405.133544921875 2382.854736328125 2360.552490234375 2349.506103515625 2342.82177734375 2331.677001953125 2326.837890625 2310.4990234375 2299.206298828125 2296.919921875 2277.630615234375 2253.221923828125 2245.112060546875 2239.197265625 2222.08251953125 2214.9384765625 2205.58056640625 2198.77197265625 2218.5029296875 2234.450439453125 2241.675048828125 2260.65869140625 2283.197021484375 2293.06591796875 2316.356689453125 2335.445068359375 2356.14599609375 2380.55126953125 2382.113525390625 2385.8447265625 2395.285888671875 2414.798095703125 2427.230224609375 2452.841552734375 2452.972412109375 2455.4609375 2459.76171875 2466.52099609375 2463.729248046875 2465.498046875 2489.0791015625 2509.18017578125 2513.142333984375 2543.484130859375 2547.939208984375 2545.59521484375 2536.68896484375 2526.992431640625 2526.102783203125 2528.28564453125 2525.8974609375 2540.276611328125 2541.2578125 2534.90576171875 2510.3544921875 2494.248291015625 2487.746337890625 2480.6845703125 2476.44970703125 2469.431396484375 2472.50439453125 2478.806640625 2500.4970703125 2527.018798828125 2531.784912109375 2536.793701171875 2550.12939453125 2567.86767578125 2572.838134765625
2481.190185546875 2528.015380859375 2562.150146484375 2584.105712890625 2599.906982421875 2614.589111328125 2632.408447265625 2633.661865234375 2645.83642578125 2665.739013671875 2659.400390625 2654.737060546875 2651.787841796875 2655.041259765625 2649.089111328125 2640.18603515625 2633.983154296875 2621.432861328125 2614.416259765625 2607.7236328125 2598.80810546875 2586.91796875 2581.6904296875 2571.163330078125 2558.814697265625 2544.9404296875 2513.23486328125 2492.81591796875 2470.911376953125 2461.695068359375 2455.97412109375 2442.545654296875 2429.46728515625 2406.568603515625 2378.561279296875 2371.361083984375 2359.278076171875 2337.73193359375 2316.22802734375 2280.385986328125 2279.15478515625 2263.48681640625 2260.04931640625 2277.104248046875 2295.587158203125 2310.217041015625 2313.8349609375 2341.08447265625 2380.73876953125 2401.088623046875 2415.4267578125 2436.00537109375 2445.53369140625 2452.028564453125 2452.5322265625 2452.9365234375 2448.722900390625 2443.401611328125 2435.9794921875 2429.744384765625 2421.572998046875 2428.70556640625 2425.552490234375 2418.396484375 2431.49658203125 2444.60986328125 2458.177978515625 2471.25 2492.3193359375 2535.111328125 2536.599365234375 2528.42529296875 2518.508056640625 2510.84326171875 2508.406982421875 2503.509033203125 2488.083740234375 2479.1962890625 2468.96728515625 2454.70947265625 2448.323974609375 2440.759765625 2433.9814453125 2431.35302734375 2431.477783203125 2433.01318359375 2432.8173828125 2420.07958984375 2414.162841796875 2424.553466796875 2423.1328125 2422.561767578125 2425.375244140625 2423.53271484375 2422.805908203125 2419.033935546875 2409.692138671875 2389.407470703125 2357.921630859375 2344.79541015625 2337.59716796875 2329.9541015625 2323.782958984375 2308.587646484375 2293.46826171875 2293.896240234375 2273.327880859375 2258.9677734375 2235.778564453125 2229.1396484375 2217.075927734375 2207.255615234375 2195.77783203125 2194.44140625 2221.07861328125 2239.830810546875 2254.421875 2274.1220703125 2296.193359375 2314.659912109375 2343.089111328125 2353.84912109375 2378.40771484375 2388.63671875 2389.409423828125 2394.5361328125 2402.622314453125 2431.432373046875 2451.261962890625 2456.9228515625 2459.473388671875 2464.687744140625 2470.611083984375 2473.400634765625 2489.199951171875 2500.398681640625 2515.171142578125 2535.72119140625 2546.49560546875 2547.76025390625 2547.066650390625 2547.19580078125 2533.2197265625 2524.27587890625 2501.072509765625 2505.7802734375 2501.22900390625 2510.23583984375 2524.41015625 2511.102783203125 2484.84765625 2475.135498046875 2474.758544921875 2476.190185546875 2465.875244140625 2469.0830078125 2477.027099609375 2484.3349609375 2506.4736328125 2518.40869140625 2535.99072265625 2544.3720703125 2559.37109375 2568.264892578125 2575.447509765625
2505.124755859375 2527.92041015625 2575.50146484375 2598.311767578125 2647.108642578125 2660.0791015625 2676.458740234375 2657.541748046875 2662.47216796875 2654.49267578125 2649.37353515625 2646.548583984375 2640.059326171875 2636.048095703125 2629.0556640625 2619.970458984375 2613.486572265625 2603.9443359375 2594.8154296875 2582.531982421875 2571.310546875 2560.18212890625 2552.31494140625 2544.419189453125 2533.315673828125 2518.05615234375 2488.0576171875 2467.856201171875 2452.512451171875 2439.3876953125 2435.380615234375 2420.93701171875 2404.63232421875 2389.6494140625 2356.9912109375 2340.948486328125 2332.05078125 2313.748046875 2290.48828125 2256.572998046875 2248.0966796875 2253.626953125 2292.766357421875 2306.033935546875 2298.997802734375 2303.1796875 2329.13671875 2375.316650390625 2398.922607421875 2416.912109375 2430.747314453125 2453.4208984375 2462.8701171875 2460.31982421875 2456.89599609375 2451.654052734375 2442.7138671875 2441.81787109375 2435.481689453125 2426.974609375 2428.996337890625 2430.888427734375 2423.33203125 2432.350341796875 2445.571533203125 2452.45068359375 2469.385009765625 2487.471923828125 2513.857666015625 2528.856201171875 2525.558349609375 2513.287841796875 2500.842529296875 2491.75732421875 2486.698486328125 2479.23779296875 2468.5966796875 2455.336669921875 2447.37744140625 2430.222412109375 2429.638671875 2422.766845703125 2415.36181640625 2417.49609375 2420.2890625 2422.852783203125 2416.11474609375 2409.2021484375 2410.550048828125 2414.88037109375 2411.8779296875 2411.002685546875 2413.200439453125 2413.982177734375 2412.18701171875 2412.09814453125 2403.478759765625 2392.111083984375 2356.778076171875 2341.767578125 2334.88818359375 2323.045654296875 2313.205810546875 2303.899169921875 2290.010498046875 2275.423828125 2262.487548828125 2249.423095703125 2239.5263671875 2220.88134765625 2207.47607421875 2197.780517578125 2183.157958984375 2197.119140625 2229.054931640625 2263.3701171875 2277.4609375 2291.968505859375 2315.15869140625 2328.408447265625 2365.088134765625 2381.525390625 2393.695068359375 2397.683349609375 2396.29833984375 2415.3798828125 2431.419921875 2451.1875 2469.331298828125 2476.869140625 2477.627197265625 2485.222412109375 2487.900634765625 2497.303466796875 2516.842529296875 2520.53173828125 2528.528076171875 2541.901123046875 2545.26806640625 2540.608642578125 2534.551513671875 2537.160888671875 2531.950439453125 2515.54833984375 2466.291748046875 2464.778076171875 2469.870361328125 2467.802001953125 2482.864501953125 2460.428466796875 2451.9873046875 2452.234619140625 2450.742431640625 2452.08203125 2457.93505859375 2478.0595703125 2485.504638671875 2485.22314453125 2492.451171875 2496.505126953125 2500.919189453125 2522.10205078125 2537.828125 2513.614501953125 2523.56494140625
2543.0732421875 2561.57080078125 2590.198974609375 2631.63916015625 2671.09814453125 2674.181884765625 2667.2275390625 2655.296630859375 2648.37939453125 2640.9736328125 2635.49560546875 2631.834716796875 2618.15478515625 2611.97314453125 2604.220703125 2596.361083984375 2595.016357421875 2582.268798828125 2569.441162109375 2556.3408203125 2546.872802734375 2532.2890625 2524.846435546875 2516.335693359375 2506.615966796875 2491.4150390625 2463.82373046875 2443.3876953125 2419.432861328125 2406.06591796875 2399.7138671875 2389.93017578125 2376.456787109375 2367.10693359375 2330.4375 2313.87939453125 2286.74169921875 2264.600830078125 2255.35205078125 2227.47705078125 2252.021484375 2276.420654296875 2287.719482421875 2284.658447265625 2291.794189453125 2324.08349609375 2367.84033203125 2391.94775390625 2415.116943359375 2424.253173828125 2449.12548828125 2464.944091796875 2463.216064453125 2458.645263671875 2453.5390625 2443.07568359375 2443.790283203125 2452.934326171875 2446.837158203125 2435.93408203125 2426.282470703125 2430.537353515625 2444.7314453125 2460.152587890625 2457.514404296875 2462.81787109375 2493.91650390625 2510.80517578125 2513.802734375 2512.132080078125 2510.174072265625 2495.886474609375 2490.39306640625 2484.469970703125 2469.1298828125 2463.3916015625 2450.53564453125 2441.95703125 2431.34912109375 2417.443359375 2411.6005859375 2407.86181640625 2407.728271484375 2406.255126953125 2405.83447265625 2404.483642578125 2402.2548828125 2388.695068359375 2394.45703125 2400.293701171875 2396.26123046875 2395.623779296875 2396.946533203125 2401.006591796875 2399.7236328125 2396.71142578125 2386.41064453125 2378.2744140625 2357.871826171875 2340.19580078125 2330.376220703125 2318.630615234375 2308.88671875 2300.3017578125 2285.499755859375 2264.802734375 2258.982666015625 2246.85009765625 2233.194091796875 2211.780029296875 2191.271484375 2188.360107421875 2183.6962890625 2219.206298828125 2239.847900390625 2280.43212890625 2297.818115234375 2312.712646484375 2323.23486328125 2328.04052734375 2373.27099609375 2385.212646484375 2386.37841796875 2394.2451171875 2403.085205078125 2426.07275390625 2443.2470703125 2456.923828125 2471.01171875 2479.61279296875 2492.906005859375 2493.279052734375 2499.089599609375 2509.6650390625 2533.61376953125 2524.9921875 2523.895751953125 2534.05517578125 2534.906982421875 2529.718505859375 2527.71044921875 2525.294677734375 2485.240234375 2454.289794921875 2440.74169921875 2437.774169921875 2438.5673828125 2435.265625 2433.981689453125 2436.589111328125 2438.036376953125 2440.814453125 2443.323486328125 2440.578857421875 2458.151611328125 2485.208984375 2474.036376953125 2464.510986328125 2450.303955078125 2453.995849609375 2452.7392578125 2474.83447265625 2482.606689453125 2486.748291015625 2495.5439453125
2573.07861328125 2593.242431640625 2613.698974609375 2627.539306640625 2660.500732421875 2668.482666015625 2660.4951171875 2649.392333984375 2642.010498046875 2632.25390625 2626.88623046875 2620.378173828125 2606.541015625 2597.04345703125 2587.985595703125 2579.7607421875 2573.05517578125 2556.509765625 2546.62939453125 2533.73779296875 2517.56787109375 2503.990478515625 2495.64990234375 2488.64501953125 2477.197998046875 2465.476318359375 2434.522216796875 2417.0166015625 2393.669921875 2379.3466796875 2372.210693359375 2370.31884765625 2360.556640625 2352.004150390625 2313.019775390625 2300.920166015625 2262.3466796875 2245.01513671875 2231.628662109375 2224.04248046875 2251.431396484375 2264.960205078125 2273.865478515625 2284.384033203125 2304.51708984375 2351.87158203125 2376.943115234375 2404.452880859375 2423.867431640625 2442.178466796875 2460.984130859375 2459.417724609375 2456.01220703125 2450.77685546875 2447.328125 2453.45263671875 2453.277099609375 2449.152099609375 2435.29150390625 2428.14794921875 2431.6865234375 2449.566650390625 2463.180419921875 2462.1044921875 2460.7529296875 2481.19775390625 2499.5478515625 2507.61328125 2502.9384765625 2494.25830078125 2492.3974609375 2484.15283203125 2474.652587890625 2462.981201171875 2441.098388671875 2431.609130859375 2426.486328125 2416.3193359375 2409.087646484375 2396.00048828125 2387.6767578125 2387.527587890625 2392.184326171875 2391.72802734375 2392.971923828125 2387.47314453125 2386.1630859375 2374.72412109375 2369.272216796875 2380.770263671875 2381.388671875 2382.99267578125 2382.80712890625 2384.963134765625 2383.046142578125 2377.9423828125 2372.707275390625 2365.5068359375 2347.055908203125 2330.5341796875 2315.356689453125 2308.974609375 2304.966064453125 2296.298583984375 2282.087158203125 2263.47802734375 2252.410400390625 2228.499755859375 2218.501220703125 2205.229736328125 2179.821533203125 2176.9873046875 2184.933837890625 2230.291259765625 2254.263916015625 2296.835205078125 2305.332763671875 2314.947265625 2310.023193359375 2321.667236328125 2364.884521484375 2375.826904296875 2383.333251953125 2398.4697265625 2405.863525390625 2430.33349609375 2447.386962890625 2454.376953125 2467.364501953125 2485.44482421875 2499.349853515625 2503.084228515625 2512.21337890625 2517.520263671875 2522.940185546875 2520.861083984375 2518.03076171875 2523.644287109375 2524.2265625 2517.949462890625 2497.666748046875 2496.0400390625 2437.044921875 2430.495361328125 2422.514892578125 2421.583984375 2421.145263671875 2419.202880859375 2424.257568359375 2421.756591796875 2421.2138671875 2418.15771484375 2416.69970703125 2415.230224609375 2429.1962890625 2442.924072265625 2440.717041015625 2433.8779296875 2417.740478515625 2434.949951171875 2438.332275390625 2451.54736328125 2459.932373046875 2468.528564453125 2482.990478515625
2561.042236328125 2575.3583984375 2587.248779296875 2611.0302734375 2658.127685546875 2656.21044921875 2649.8076171875 2636.853515625 2627.96826171875 2617.564697265625 2607.1875 2599.158935546875 2584.468505859375 2569.425048828125 2563.4306640625 2554.203125 2540.840576171875 2529.150634765625 2514.26708984375 2512.87109375 2500.259033203125 2484.05029296875 2476.714599609375 2469.125 2457.8759765625 2445.395263671875 2416.63818359375 2399.8046875 2374.624755859375 2361.150634765625 2353.760986328125 2344.174560546875 2338.175048828125 2331.972900390625 2299.472412109375 2268.82177734375 2239.842041015625 2216.63037109375 2203.14208984375 2223.0966796875 2234.306396484375 2245.687255859375 2261.611328125 2294.833984375 2328.615478515625 2365.36279296875 2393.403564453125 2409.295654296875 2436.09765625 2449.921630859375 2454.147705078125 2451.336669921875 2449.499755859375 2449.6962890625 2452.192626953125 2451.307373046875 2446.49560546875 2444.592041015625 2432.86279296875 2433.9736328125 2443.82568359375 2463.966552734375 2470.310302734375 2464.91162109375 2480.211669921875 2491.9580078125 2502.989501953125 2502.0615234375 2500.485595703125 2488.552734375 2480.68994140625 2471.024169921875 2458.404052734375 2446.140869140625 2426.546142578125 2411.756103515625 2405.099365234375 2395.777099609375 2392.745361328125 2384.527587890625 2375.982421875 2376.546630859375 2385.5380859375 2383.9970703125 2383.083740234375 2379.502685546875 2373.157958984375 2355.178955078125 2353.87548828125 2354.894775390625 2362.476806640625 2360.9892578125 2367.805419921875 2367.80224609375 2365.9775390625 2363.33251953125 2354.319580078125 2348.44970703125 2335.81640625 2327.943603515625 2320.26708984375 2307.599609375 2302.039306640625 2292.869384765625 2282.2099609375 2258.75390625 2252.769287109375 2237.544921875 2220.279296875 2201.6708984375 2182.520751953125 2173.12255859375 2186.41943359375 2226.071044921875 2263.130126953125 2287.462646484375 2281.768798828125 2305.342041015625 2298.28466796875 2311.882080078125 2350.074462890625 2356.175537109375 2374.515869140625 2387.05078125 2399.76904296875 2414.90087890625 2441.505859375 2449.677490234375 2461.062255859375 2484.275634765625 2492.248779296875 2501.097412109375 2505.2470703125 2510.01171875 2514.5615234375 2510.474365234375 2509.844970703125 2513.68212890625 2506.682861328125 2466.02978515625 2447.3427734375 2427.8173828125 2407.78076171875 2400.901123046875 2396.0458984375 2395.3466796875 2395.66796875 2394.13818359375 2383.50732421875 2383.586181640625 2394.53759765625 2392.685791015625 2392.311279296875 2401.38134765625 2401.79296875 2397.222412109375 2395.72412109375 2396.563720703125 2409.057861328125 2419.93408203125 2425.366455078125 2438.5458984375 2452.683837890625 2461.672119140625 2476.166259765625
2539.457763671875 2552.330322265625 2561.12548828125 2598.370361328125 2638.064208984375 2640.044677734375 2634.6103515625 2624.84521484375 2617.3681640625 2600.60546875 2589.84716796875 2583.753662109375 2569.5830078125 2558.016845703125 2547.096923828125 2536.00341796875 2522.516845703125 2512.21728515625 2495.552734375 2479.65625 2466.041748046875 2449.5693359375 2440.957763671875 2435.98681640625 2425.962890625 2414.36669921875 2385.66357421875 2360.39306640625 2345.924072265625 2326.3056640625 2324.96728515625 2312.935302734375 2308.213134765625 2301.490966796875 2271.879638671875 2251.86083984375 2222.32080078125 2201.37060546875 2199.154052734375 2213.106201171875 2222.724365234375 2241.443115234375 2269.1318359375 2309.173828125 2350.676513671875 2373.77099609375 2398.751220703125 2415.447998046875 2429.70166015625 2435.31201171875 2438.8564453125 2436.97705078125 2445.4638671875 2449.303955078125 2448.02294921875 2438.212158203125 2445.553955078125 2453.62109375 2440.51953125 2429.6220703125 2434.3544921875 2443.60400390625 2450.69384765625 2462.435791015625 2471.91748046875 2488.05224609375 2495.325439453125 2490.829833984375 2482.80126953125 2465.5830078125 2453.26904296875 2437.6376953125 2426.920166015625 2416.819091796875 2402.554931640625 2392.310302734375 2383.193603515625 2370.9931640625 2363.038818359375 2359.110107421875 2360.30810546875 2367.082275390625 2368.662841796875 2367.649169921875 2363.046142578125 2364.895751953125 2352.12548828125 2349.052001953125 2340.521240234375 2339.025146484375 2344.116455078125 2349.9423828125 2351.07958984375 2353.8994140625 2351.932373046875 2350.337158203125 2344.13427734375 2338.573486328125 2331.55224609375 2322.9326171875 2323.802978515625 2308.1123046875 2297.18994140625 2290.645263671875 2275.167724609375 2257.26611328125 2245.651123046875 2232.57958984375 2221.22119140625 2194.63134765625 2166.558349609375 2150.980224609375 2178.5771484375 2234.88037109375 2248.1162109375 2267.212890625 2265.2392578125 2274.351318359375 2288.393798828125 2299.59619140625 2337.125 2342.311767578125 2361.7265625 2375.544189453125 2386.657958984375 2404.179443359375 2438.31201171875 2439.991943359375 2444.058837890625 2471.558837890625 2488.57958984375 2499.91650390625 2497.869140625 2495.248046875 2498.126953125 2484.988525390625 2487.741943359375 2475.25439453125 2469.699462890625 2439.682373046875 2419.767333984375 2406.085693359375 2392.585693359375 2386.355712890625 2383.51708984375 2382.89599609375 2379.312255859375 2379.84228515625 2365.416015625 2367.281982421875 2381.199951171875 2382.0107421875 2375.3134765625 2397.416015625 2369.711669921875 2369.864990234375 2376.972412109375 2380.511962890625 2387.606201171875 2401.888916015625 2412.635498046875 2434.971923828125 2452.78173828125 2467.98974609375 2487.939453125
2521.3486328125 2528.7294921875 2541.57666015625 2575.59033203125 2620.298095703125 2623.956298828125 2619.94189453125 2605.27099609375 2590.498046875 2572.183349609375 2567.520751953125 2560.50537109375 2546.58154296875 2533.947998046875 2516.542724609375 2509.46533203125 2496.58740234375 2485.391357421875 2471.9345703125 2455.779541015625 2440.3896484375 2424.083740234375 2421.084228515625 2415.784912109375 2405.94677734375 2394.8447265625 2366.406005859375 2344.0849609375 2327.639892578125 2307.97119140625 2308.479248046875 2296.48779296875 2289.21240234375 2278.09912109375 2260.393310546875 2237.01513671875 2206.2158203125 2190.761474609375 2202.088134765625 2215.00341796875 2225.523681640625 2248.538330078125 2286.51904296875 2328.93896484375 2343.93310546875 2371.6494140625 2398.131103515625 2411.87158203125 2417.7265625 2422.25439453125 2429.998291015625 2445.142822265625 2452.6552734375 2451.77392578125 2440.565673828125 2439.0654296875 2441.26513671875 2436.41552734375 2427.85009765625 2429.68701171875 2431.156005859375 2430.417724609375 2427.333251953125 2437.53076171875 2449.12060546875 2473.023681640625 2477.32568359375 2464.650634765625 2453.214599609375 2438.561767578125 2428.72412109375 2414.543212890625 2405.61376953125 2400.712646484375 2395.66259765625 2379.18896484375 2357.58447265625 2351.993408203125 2348.66845703125 2345.121826171875 2350.838134765625 2358.635009765625 2360.296142578125 2360.169921875 2355.917724609375 2353.83203125 2341.697998046875 2333.300048828125 2334.6279296875 2334.335205078125 2329.922607421875 2336.061279296875 2335.935791015625 2344.490234375 2338.53515625 2334.202880859375 2327.696044921875 2323.802978515625 2318.58447265625 2310.839599609375 2310.956298828125 2300.642578125 2293.500244140625 2284.59814453125 2272.403076171875 2252.310791015625 2245.55712890625 2235.0537109375 2225.85986328125 2197.159423828125 2160.504150390625 2144.884033203125 2163.946044921875 2224.526123046875 2233.528564453125 2245.215087890625 2236.50439453125 2241.055908203125 2257.433837890625 2269.32080078125 2310.934814453125 2322.885986328125 2351.409912109375 2372.32421875 2377.406494140625 2383.682861328125 2404.590087890625 2409.749267578125 2420.116943359375 2458.404052734375 2475.932373046875 2491.432373046875 2484.5302734375 2474.1376953125 2462.309814453125 2461.33251953125 2463.402587890625 2448.083740234375 2431.297607421875 2409.378662109375 2398.060546875 2387.921142578125 2370.680419921875 2363.566162109375 2367.77783203125 2362.93603515625 2353.30419921875 2347.514892578125 2337.34423828125 2330.1259765625 2336.6298828125 2346.9365234375 2335.179443359375 2340.27197265625 2358.83447265625 2359.41748046875 2360.8837890625 2360.0693359375 2386.791259765625 2396.83203125 2408.8720703125 2431.765380859375 2450.702880859375 2465.813232421875 2490.409912109375
2492.04296875 2486.1025390625 2528.06494140625 2546.585693359375 2581.780029296875 2595.48828125 2596.98486328125 2577.103271484375 2554.593994140625 2542.315185546875 2543.8984375 2533.96826171875 2519.008056640625 2505.950439453125 2491.485595703125 2480.94873046875 2469.8740234375 2461.656982421875 2446.68310546875 2427.331787109375 2415.654541015625 2397.616455078125 2387.522705078125 2381.341064453125 2373.8408203125 2361.223388671875 2332.18359375 2316.32470703125 2305.953857421875 2276.212646484375 2279.14306640625 2266.567626953125 2252.917236328125 2235.580078125 2217.270751953125 2205.46240234375 2185.815673828125 2210.231689453125 2221.86474609375 2226.167724609375 2242.224609375 2267.23486328125 2294.474853515625 2325.482421875 2338.5732421875 2359.1181640625 2387.11328125 2398.9248046875 2410.928955078125 2408.7568359375 2430.892578125 2456.0419921875 2454.978271484375 2446.205078125 2437.15576171875 2434.667724609375 2424.18115234375 2408.75244140625 2402.841796875 2409.74267578125 2417.00048828125 2415.46630859375 2406.591064453125 2413.1025390625 2430.153564453125 2463.214599609375 2462.077880859375 2446.1650390625 2434.960205078125 2424.794677734375 2418.576416015625 2402.985595703125 2394.051025390625 2386.325927734375 2379.63037109375 2364.9716796875 2351.32958984375 2339.401611328125 2335.485107421875 2330.76513671875 2342.755859375 2346.500244140625 2347.9853515625 2349.032470703125 2346.108642578125 2337.496826171875 2320.38525390625 2319.95751953125 2328.4775390625 2324.373046875 2316.92529296875 2312.716552734375 2325.538330078125 2332.150390625 2325.204833984375 2322.100341796875 2315.802978515625 2315.90087890625 2314.0830078125 2305.90771484375 2303.505126953125 2297.20556640625 2283.988525390625 2280.071533203125 2266.829345703125 2251.11328125 2242.036376953125 2240.050537109375 2218.675537109375 2195.36669921875 2155.693603515625 2133.919189453125 2143.90478515625 2213.33251953125 2225.26025390625 2231.55322265625 2221.533447265625 2218.480712890625 2234.245849609375 2257.035400390625 2291.7490234375 2300.7900390625 2320.120849609375 2350.870849609375 2363.4423828125 2369.097900390625 2378.778076171875 2388.24755859375 2398.2626953125 2441.107666015625 2464.312255859375 2478.442138671875 2465.050537109375 2447.69580078125 2442.27001953125 2433.031982421875 2428.613525390625 2413.77490234375 2403.655517578125 2393.1328125 2381.71533203125 2375.517822265625 2356.55126953125 2352.5498046875 2354.447998046875 2356.16259765625 2340.241455078125 2330.949462890625 2320.346923828125 2311.2958984375 2331.517333984375 2343.997802734375 2302.958251953125 2316.95947265625 2336.611328125 2340.6953125 2311.70361328125 2344.681396484375 2363.302978515625 2388.615966796875 2399.044189453125 2419.9951171875 2442.714111328125 2461.763916015625 2492.2783203125
2464.0537109375 2469.26123046875 2510.076171875 2526.400390625 2557.0166015625 2574.5849609375 2567.95263671875 2555.937255859375 2535.939697265625 2519.332763671875 2515.220703125 2507.282470703125 2489.20361328125 2476.137451171875 2462.59228515625 2453.955078125 2441.709716796875 2433.110107421875 2419.0556640625 2402.58984375 2389.89453125 2370.4482421875 2361.25146484375 2350.708984375 2345.623046875 2331.86181640625 2315.607421875 2303.18115234375 2290.846923828125 2261.406005859375 2254.987548828125 2247.40234375 2228.679931640625 2213.169677734375 2193.06640625 2181.738525390625 2199.136962890625 2210.277099609375 2231.978515625 2248.05126953125 2278.113525390625 2297.1259765625 2319.872802734375 2345.17138671875 2359.415771484375 2375.977783203125 2389.187255859375 2388.029296875 2390.263916015625 2414.93798828125 2441.382568359375 2456.249267578125 2452.8603515625 2430.437255859375 2413.59228515625 2416.898681640625 2405.0224609375 2392.66650390625 2387.405517578125 2395.610595703125 2402.524658203125 2398.642822265625 2393.60107421875 2403.83740234375 2426.000732421875 2437.64599609375 2436.722412109375 2425.619140625 2419.526123046875 2403.494384765625 2389.446044921875 2377.587890625 2363.52880859375 2349.95361328125 2349.8212890625 2340.680908203125 2328.00537109375 2319.529052734375 2318.0791015625 2324.81494140625 2329.6484375 2336.06640625 2337.88330078125 2338.30712890625 2338.4501953125 2322.784912109375 2311.870849609375 2312.50830078125 2316.075439453125 2311.56982421875 2308.544677734375 2296.40869140625 2302.798095703125 2309.1962890625 2313.790283203125 2312.385498046875 2304.320556640625 2301.4580078125 2295.873046875 2291.56103515625 2289.244873046875 2288.39208984375 2278.38720703125 2269.9150390625 2255.792236328125 2244.8359375 2236.019775390625 2232.85546875 2224.7392578125 2197.947265625 2158.974853515625 2140.25244140625 2116.07470703125 2163.699951171875 2173.37744140625 2206.20361328125 2207.650146484375 2194.974853515625 2211.474609375 2236.188720703125 2249.86572265625 2267.4248046875 2291.498046875 2327.784912109375 2339.029541015625 2344.364013671875 2347.620849609375 2357.234130859375 2366.733642578125 2395.642578125 2423.159912109375 2442.875244140625 2424.629638671875 2422.525146484375 2420.923583984375 2414.578857421875 2410.747314453125 2402.309814453125 2391.480224609375 2371.090576171875 2364.499267578125 2362.27197265625 2344.3583984375 2341.030029296875 2338.208740234375 2329.81201171875 2318.28271484375 2307.526611328125 2296.43603515625 2278.371337890625 2277.579345703125 2282.647705078125 2271.762451171875 2262.228759765625 2270.4814453125 2267.365966796875 2279.15869140625 2288.567138671875 2359.450927734375 2380.870849609375 2386.017822265625 2423.4443359375 2450.672607421875 2469.04931640625 2498.336181640625
2422.366455078125 2451.54296875 2481.8564453125 2485.7861328125 2504.2626953125 2519.52490234375 2514.916015625 2521.33203125 2505.107177734375 2487.81884765625 2479.736328125 2467.36376953125 2453.1533203125 2443.583984375 2443.820068359375 2432.38623046875 2418.031005859375 2409.53857421875 2397.801513671875 2382.74609375 2372.098876953125 2349.1572265625 2339.62939453125 2329.652099609375 2324.2880859375 2312.517578125 2293.62841796875 2282.824462890625 2271.8037109375 2239.196044921875 2223.414306640625 2221.749267578125 2205.1611328125 2186.818115234375 2192.26318359375 2206.947265625 2207.532958984375 2233.172119140625 2269.134033203125 2277.147216796875 2291.57763671875 2317.46875 2334.871337890625 2361.951171875 2367.746826171875 2377.408935546875 2385.814208984375 2383.351806640625 2392.115966796875 2415.025390625 2431.3291015625 2437.890869140625 2435.74560546875 2417.1083984375 2386.365478515625 2380.62646484375 2379.078369140625 2375.744384765625 2378.1015625 2380.41259765625 2385.36962890625 2382.8720703125 2376.91552734375 2384.95654296875 2412.040283203125 2419.748291015625 2418.59130859375 2404.616943359375 2393.493896484375 2387.368896484375 2373.6875 2360.489501953125 2344.404052734375 2335.620849609375 2328.37646484375 2325.282958984375 2312.5615234375 2307.676513671875 2309.6982421875 2312.29931640625 2320.774169921875 2327.029541015625 2330.753173828125 2329.19482421875 2330.08447265625 2317.587890625 2306.4033203125 2300.879638671875 2300.271728515625 2303.082763671875 2299.17529296875 2293.274169921875 2295.282958984375 2300.76171875 2302.828125 2307.7724609375 2297.79296875 2291.70556640625 2287.42578125 2285.343017578125 2283.679443359375 2286.1669921875 2274.5234375 2263.51513671875 2251.105712890625 2239.853515625 2235.440185546875 2231.839111328125 2219.821044921875 2191.77734375 2154.544189453125 2135.552001953125 2112.26171875 2135.52197265625 2140.563720703125 2159.12255859375 2164.221435546875 2173.863525390625 2193.295654296875 2215.47607421875 2233.0263671875 2261.195068359375 2272.247802734375 2295.696533203125 2321.074951171875 2330.53662109375 2327.490478515625 2340.873046875 2348.486328125 2373.034912109375 2392.9580078125 2399.80615234375 2408.6552734375 2408.034423828125 2409.967529296875 2405.025390625 2400.1044921875 2390.73779296875 2364.244140625 2349.086669921875 2343.07373046875 2335.1982421875 2337.6953125 2330.33642578125 2317.60546875 2311.903076171875 2296.920654296875 2294.40625 2282.412353515625 2264.701171875 2260.4130859375 2247.002197265625 2241.056396484375 2238.161865234375 2244.31201171875 2252.857177734375 2263.113037109375 2281.3505859375 2297.9892578125 2328.282470703125 2354.785400390625 2435.137939453125 2461.51123046875 2468.66259765625 2489.629150390625
